# x,y,z
5.950633155537958174e+01,2.978401798696019682e+02,8.684973660611118476e+02
5.010302312850927819e+01,2.942101262588706163e+02,8.908989809700013893e+02
4.008444440627929595e+01,2.999861780800332554e+02,8.760898177873410759e+02
nan,nan,nan
3.957063145269682281e+01,3.142625727044783162e+02,8.598143542408537314e+02
5.259742433810873052e+01,3.065640262163191778e+02,8.854619377097503730e+02
5.065071238933125386e+01,2.918017505194551973e+02,8.701243568178317673e+02
nan,nan,nan
5.104464747587541495e+01,2.976330661561162856e+02,8.796503928860449832e+02
4.789676801003030704e+01,2.832114576356959219e+02,8.638309421283125857e+02
5.319730290022951635e+01,3.066134339979066112e+02,8.597237864661419735e+02
3.336052433206386070e+01,3.112214839662531745e+02,8.592004474066091007e+02
5.069098272178259634e+01,2.960832591692825417e+02,8.770932606590897649e+02
5.191690036491787197e+01,2.926981316942266744e+02,8.710488251446718095e+02
5.957060178817850016e+01,3.065474001344725252e+02,8.669116244330322161e+02
4.216856804680665505e+01,2.920600071424414068e+02,8.738082830342440275e+02
4.787235241459516999e+01,2.980686132529249903e+02,8.759671792856194088e+02
4.367041899257259985e+01,2.850483884867483653e+02,8.624609905243039520e+02
5.693570109781852295e+01,3.011804288850520379e+02,8.704349409207896997e+02
3.820571140013587552e+01,2.898523012630016638e+02,8.681021955529107572e+02
3.999670013604774255e+01,2.887914855885449583e+02,8.599448160673643997e+02
5.296383879644776727e+01,3.023183253856914234e+02,8.690181393388807010e+02
3.805880800762777483e+01,3.097861611787475340e+02,8.651376147811099599e+02
6.114723280144920636e+01,2.861476168698805509e+02,8.674143952961761670e+02
5.904564669525754539e+01,3.144318829732827112e+02,8.783368781041457396e+02
5.192587754833911617e+01,3.120250935552799660e+02,8.769775971994891961e+02
5.079409106865513479e+01,2.933554685738059788e+02,8.523500940301037190e+02
4.979364027843349305e+01,3.004124237838674389e+02,8.760768372884158453e+02
5.905613395003329913e+01,2.948573239398550641e+02,8.744594123762248046e+02
4.726706148838063370e+01,2.973189366978295425e+02,8.666041856595998070e+02
5.007749431479554403e+01,3.008423599381890767e+02,8.658178334545074222e+02
4.416315798760847144e+01,3.034551906678403270e+02,8.621113686437425940e+02
6.220897464598974125e+01,2.955417563268110825e+02,8.839265502598833564e+02
5.608659999771562354e+01,3.206493005840349042e+02,8.705800388072780152e+02
nan,nan,nan
3.646256643281039089e+01,3.064733812058859712e+02,8.853620283309064689e+02
4.525690214007969558e+01,3.024360604076925370e+02,8.773759140901108822e+02
4.294321250775507792e+01,3.018728056767952239e+02,8.571024358611862226e+02
nan,nan,nan
3.688581398592022964e+01,3.047342586343498851e+02,8.642605620904099624e+02
4.890697522457499957e+01,3.004003457167614783e+02,8.708932106577042305e+02
6.162978692002342029e+01,2.953803644939956143e+02,8.765612704963239139e+02
nan,nan,nan
5.747530256473466892e+01,2.937103961220338988e+02,8.576061897768407789e+02
3.437400944471519892e+01,3.135845254676298737e+02,8.616782534003119736e+02
5.248382446678453306e+01,2.905809325581724920e+02,8.748077243919220791e+02
2.317054602659757023e+01,3.044448177847825718e+02,8.818785865506101800e+02
4.023394939073099863e+01,2.916191523683322657e+02,8.582220929499285376e+02
5.263764097457755753e+01,3.078891701894365838e+02,8.707914229893896163e+02
4.723079192070957788e+01,2.782728676324809953e+02,8.758302178423092528e+02
4.007177729366949137e+01,3.104144977660936320e+02,8.856632374215225809e+02
6.908475160127784420e+01,3.130502247038057817e+02,8.669801750757726495e+02
3.395178877598525702e+01,3.047594998527132475e+02,8.739437123771092502e+02
nan,nan,nan
4.444665980040059594e+01,3.013305865177701435e+02,8.653882489116534771e+02
8.159701632732067367e+01,3.069344484731878993e+02,8.650006918892755721e+02
6.997559090688379513e+01,3.010773041000307444e+02,8.500153592366579005e+02
6.619495719294306468e+01,3.029646395312211098e+02,8.874977011657490493e+02
4.870115666506423224e+01,2.865885004794985207e+02,8.750680541402185781e+02
2.840210482338195064e+01,2.929611734586032412e+02,8.714218712523971817e+02
6.274499399033896196e+01,3.075482193875639041e+02,8.833762373603138940e+02
nan,nan,nan
5.020690184013983526e+01,2.968910345344850725e+02,8.557406748244536629e+02
5.257680066968518418e+01,3.149525080514964088e+02,8.698817397575217001e+02
4.650601820146794552e+01,2.984351910652346191e+02,8.739912176183129304e+02
4.612209789862103548e+01,2.812102754672162632e+02,8.742298446467682425e+02
5.671844876421786097e+01,3.059258566703250608e+02,8.592156939483458018e+02
5.622568585287704934e+01,3.135567861099331139e+02,8.561026964609778815e+02
5.308685592392900077e+01,2.976834406704600156e+02,8.533744220638847082e+02
9.085026201028051673e+01,2.971394141084173839e+02,8.711999596360655005e+02
5.053188668556978769e+01,2.998523124429229370e+02,8.642668607725059928e+02
6.005166441733531713e+01,3.116784294001738544e+02,8.681700641158153076e+02
6.271560098621441171e+01,2.916074087537037371e+02,8.773673027344627826e+02
5.297601479341969366e+01,2.927836599365336383e+02,8.734866715569872895e+02
6.364126607759582299e+01,3.008752058126536326e+02,8.588001398705417841e+02
5.598738919071940501e+01,2.911765094564920560e+02,8.794557887546411621e+02
4.712946387725092023e+01,3.028574766148423123e+02,8.670513065964795487e+02
6.639971842043192396e+01,3.013678936719553008e+02,8.745206865244391565e+02
5.003303140102306656e+01,3.068143054171317772e+02,8.799064047953910404e+02
6.936039544524911094e+01,3.092914365205179479e+02,8.662544583312751456e+02
4.301143664982588177e+01,2.937641457232338098e+02,8.646100690350331206e+02
4.334858753795182196e+01,3.092290072857974224e+02,8.849820990485168295e+02
4.585720820770212924e+01,3.175364698725074959e+02,8.683796341569100150e+02
5.291104552377908021e+01,2.976646534428714972e+02,8.749543846560292195e+02
3.772382798267774717e+01,3.015970331389382864e+02,8.769910265093084263e+02
5.426516289342828259e+01,3.075349090193100210e+02,8.894371319787817356e+02
4.133373533088945351e+01,3.011397732335999535e+02,8.860124207605641686e+02
5.783566041799620905e+01,3.112027825005878867e+02,8.747488128596793331e+02
4.811288772051563711e+01,3.119655597457798422e+02,8.630888451674908310e+02
5.666135936268384654e+01,3.005091478799154174e+02,8.745547031402938956e+02
4.746906676818194626e+01,3.089798084524901469e+02,8.855107566096793335e+02
4.917266255868891278e+01,2.951241672561424139e+02,8.798356813822077811e+02
4.233960657713259224e+01,3.107404848826324724e+02,8.849536257898436133e+02
3.310400671481674806e+01,3.066187080097184889e+02,8.664196018185983803e+02
6.212921797411139124e+01,2.819903934722059944e+02,8.540913910059163072e+02
nan,nan,nan
5.057457341285130070e+01,3.020903575571436477e+02,8.523984106553110678e+02
6.508597976533403084e+01,3.074400800788058632e+02,8.699015749072287917e+02
3.950211431879660751e+01,2.930746420852570964e+02,8.736157148132914472e+02
nan,nan,nan
4.521847494271507628e+01,2.812255272671899320e+02,8.787731494887005965e+02
6.514780273522100629e+01,3.014527278145508831e+02,8.775888633562954055e+02
4.305258900767604757e+01,2.876562635477640697e+02,8.730079503048170864e+02
nan,nan,nan
4.714197452031199731e+01,2.967421802210816395e+02,8.698975146352922820e+02
3.156471485331383775e+01,2.868198956630250223e+02,8.686170351928625450e+02
5.947311511300919307e+01,2.863810499452234239e+02,8.836024816481170774e+02
5.234063196559212372e+01,2.814518771224854277e+02,8.712771908522433932e+02
4.910546146724603034e+01,3.022781503051130585e+02,8.688392156190898277e+02
4.680360032603645948e+01,3.087443013462228123e+02,8.789193484559233411e+02
4.854807824642003311e+01,2.982464275848524267e+02,8.731303442545583948e+02
6.090009543625477306e+01,3.037851959795323182e+02,8.831842599674035910e+02
5.678636437053688013e+01,3.110708766395461566e+02,8.585631696618127080e+02
5.809221555266717019e+01,3.031266390711119243e+02,8.704869905714878087e+02
5.952456849830583963e+01,3.140827178764863561e+02,8.804853156494729092e+02
4.517653863840263284e+01,2.816071441982419969e+02,8.722001728267888438e+02
4.521819954100551797e+01,3.159900595392280138e+02,8.588734179965452995e+02
3.887075866230431131e+01,3.021450187375681367e+02,8.735634634147635325e+02
6.722478568389865927e+01,3.152172829980983693e+02,8.771162162219945913e+02
5.419040306268257012e+01,3.061780407936601591e+02,8.736534657006675388e+02
5.106844526426449704e+01,2.896630897194523300e+02,8.604438028683769062e+02
6.263000832933225581e+01,2.941500936581414862e+02,8.664234298212412568e+02
4.058013127478590576e+01,2.842756398124387260e+02,8.708971790798210577e+02
4.039251194876874251e+01,3.059856604559103630e+02,8.679135799597426058e+02
4.866615159547606595e+01,3.095252832730263322e+02,8.683691124089857567e+02
3.943583504890580826e+01,3.052139846049262815e+02,8.647145692931344456e+02
4.995295892278705452e+01,3.054553847222472314e+02,8.589189828262720994e+02
5.015409150630787849e+01,3.062985264813285085e+02,8.728518935039377311e+02
3.816828736063889238e+01,3.093295542936815536e+02,8.769062017052426654e+02
7.700576790265334637e+01,2.922566171029382076e+02,8.590804552220985215e+02
nan,nan,nan
3.709352663580992271e+01,3.066076737264921803e+02,8.699056995379343107e+02
3.424140315926410949e+01,2.910619732953148286e+02,8.700178346918227135e+02
6.718723477084034812e+01,3.009280487563743804e+02,8.655414423355614417e+02
5.065872384862307598e+01,3.037299597186537312e+02,8.699878117676784086e+02
5.221944360575180610e+01,2.929420284025316619e+02,8.769011978193808545e+02
5.932396684130988973e+01,2.952172971782225090e+02,8.921429005019700753e+02
4.184375495110344900e+01,2.994432248216651828e+02,8.716846221896331599e+02
5.640033897634643267e+01,2.932635230627767555e+02,8.820776315522394952e+02
5.313270817804338009e+01,2.943709080830516314e+02,8.732870778451316482e+02
4.332860463957668884e+01,3.051674202514889203e+02,8.807995276073587547e+02
3.798971995597222673e+01,3.099621884782107486e+02,8.522910422355487299e+02
5.101424470637939379e+01,2.903338851876628155e+02,8.393432805346977830e+02
6.191379908199791515e+01,3.038131818841449672e+02,8.682807277212924646e+02
5.175880643598893016e+01,2.952465827183432339e+02,8.728860311574372872e+02
4.891359834989772537e+01,3.002312800919369806e+02,8.619093034551164010e+02
4.346588078296053936e+01,2.910348194234553603e+02,8.673251942757784718e+02
6.027316662338898823e+01,3.133122521052600291e+02,8.753056421934029458e+02
4.783580850248362282e+01,2.952480815071030520e+02,8.787384198416777963e+02
3.762689683746989289e+01,3.066631829928505226e+02,8.728905800597905227e+02
5.535374202804468524e+01,2.964362045220254345e+02,8.770816219898168811e+02
4.447532755203393862e+01,2.874862557945884305e+02,8.783372788820772712e+02
nan,nan,nan
3.514705620429160859e+01,3.126246880692815466e+02,8.829490477989014607e+02
4.773635756963961541e+01,3.032347339195344489e+02,8.739792339027895878e+02
nan,nan,nan
6.038791220980713348e+01,2.908794921595832648e+02,8.830275454109842030e+02
4.601595415393125421e+01,2.867059194986572948e+02,8.525373182740764832e+02
4.489110066941391608e+01,3.120531884530269053e+02,8.578838171167139990e+02
4.206231392930007473e+01,2.981301181361235422e+02,8.756703318737787640e+02
4.504677406220062608e+01,2.964449911866943808e+02,8.663643357079646421e+02
nan,nan,nan
4.092884396037210593e+01,2.947681785699572856e+02,8.700411264984473974e+02
5.975541609094259599e+01,2.932096098999449509e+02,8.637245194095577290e+02
5.649371914695807817e+01,2.799724042027798419e+02,8.668299746231313065e+02
6.444586478669262419e+01,2.972927058286473425e+02,8.796921030683225808e+02
6.233881335030427806e+01,2.824309940330865061e+02,8.707659689759647108e+02
5.955458605968452446e+01,3.076072447359706530e+02,8.685798378184157400e+02
6.337308320961833630e+01,3.132998640303923139e+02,8.703831597910631217e+02
3.812722306208691236e+01,3.003561355130135553e+02,8.438611250843486005e+02
4.828893634317380190e+01,2.970746665638321815e+02,8.646611419458421324e+02
4.224471901689162223e+01,2.908427180594767378e+02,8.903897424589303000e+02
6.081664535503956870e+01,2.995728492167239096e+02,8.700122679589868540e+02
nan,nan,nan
4.685095607137998286e+01,2.872377146744848915e+02,8.771233444887966471e+02
3.394190807892778849e+01,3.063302200974666789e+02,8.781814803914454615e+02
4.468551051024874710e+01,2.940538250431026768e+02,8.736629325876466510e+02
3.031340577472301945e+01,3.008799910852200128e+02,8.608372430094362926e+02
7.389226393469064647e+01,2.950243525536862421e+02,8.878753517462481568e+02
nan,nan,nan
5.558665607433537303e+01,3.021490914645082739e+02,8.748685308025525273e+02
3.760269213940346589e+01,3.100550819800860722e+02,8.654296012956333470e+02
4.913349172556958422e+01,3.046257426086847317e+02,8.669317131071497897e+02
4.487488536556089969e+01,2.948944197668799916e+02,8.607042219770445399e+02
4.887976797829746545e+01,2.983967943283112163e+02,8.601665740322031297e+02
5.445835131520039596e+01,3.149411602341966159e+02,8.642730684072496388e+02
nan,nan,nan
4.857198068388876777e+01,3.001389156197487296e+02,8.774110119398743564e+02
5.365708623487115858e+01,3.000943518697220611e+02,8.764972619159137821e+02
5.457424167609717358e+01,3.014216067631856504e+02,8.874014238066727103e+02
5.429693999859914300e+01,3.060231791606397564e+02,8.536187946424073516e+02
4.263169635511008693e+01,2.990409633169800827e+02,8.725143410237999433e+02
4.603440032194320963e+01,2.878067244995833107e+02,8.679586653998564998e+02
4.572746405277356274e+01,3.076187741119575776e+02,8.685325952010812216e+02
5.151621651954429382e+01,3.045449366280096228e+02,8.705431313775454782e+02
3.742348425266806800e+01,2.853953082607230272e+02,8.748837528408805611e+02
4.987418558999021911e+01,2.942706797137330454e+02,8.662636837750181940e+02
6.536461849499593768e+01,2.924556580630058988e+02,8.772011476824416150e+02
5.972552663056222855e+01,2.899378405717869782e+02,8.667725822780247427e+02
nan,nan,nan
4.140241147465846439e+01,3.004183156197887001e+02,8.731224596600374070e+02
5.289456487389879413e+01,3.020324124189756958e+02,8.754183316097957004e+02
6.012549170922538622e+01,2.917809634107491092e+02,8.594653753028462688e+02
6.033658550715206559e+01,2.976750383802341275e+02,8.766711039424893670e+02
4.633986078020320321e+01,3.027390007683862905e+02,8.866927744891984275e+02
3.423663800076726460e+01,2.980611451223254562e+02,8.695336661300688093e+02
5.241126594005146444e+01,2.902096262437366931e+02,8.548897174950253657e+02
3.914849400949346148e+01,3.149692508264686808e+02,8.828352255710969985e+02
3.490625716749760699e+01,2.994946548756778952e+02,8.738693235213632988e+02
5.666697967479429110e+01,2.837243179848317141e+02,8.760881002383972600e+02
5.055590250455235690e+01,2.979425059619448461e+02,8.552775439405136240e+02
5.919674611004860765e+01,3.057577430686390585e+02,8.881533392479748272e+02
3.040587242198373019e+01,3.084122720440389571e+02,8.677061403303413272e+02
5.483673134103916880e+01,2.937951477661246713e+02,8.748201575924365443e+02
4.918362674875133678e+01,2.876989168984007392e+02,8.561669189561129087e+02
4.914899203788756665e+01,3.203470800059954513e+02,8.561106177782806981e+02
5.032561172458456156e+01,2.841670551189218941e+02,8.642857748369996216e+02
3.791370016942623522e+01,2.989744747185824281e+02,8.852253518145735143e+02
6.533874049794846428e+01,2.959625704611177071e+02,8.589829448958312241e+02
5.329934511484388793e+01,3.004755274710678350e+02,8.647734523098920363e+02
nan,nan,nan
4.009176218288737914e+01,2.977970550648159929e+02,8.647107580506375371e+02
4.777783514752058380e+01,3.050835486352398789e+02,8.700822896151709074e+02
4.422378887295175076e+01,3.044598178806974147e+02,8.658700540132811057e+02
5.264315180302860853e+01,2.988857812283323483e+02,8.682112314650893268e+02
3.866079133282171654e+01,2.910557103344764869e+02,8.725682551249473136e+02
5.917574592986468929e+01,3.012892974676144036e+02,8.694214532648198883e+02
1.988841188366964730e+01,3.119480900730461030e+02,8.640124387039397789e+02
4.441680888425428719e+01,3.022548384483296786e+02,8.708693850486790780e+02
nan,nan,nan
3.841973351127855807e+01,3.000524372873487664e+02,8.550404776969691056e+02
5.442156394575594902e+01,3.039489968911780693e+02,8.776702426471872514e+02
3.035432232590495971e+01,2.982315084503924254e+02,8.809150973273043519e+02
nan,nan,nan
3.695167728171620070e+01,2.733396359997195191e+02,8.794856834389391906e+02
3.437411420051435584e+01,3.097832614157021567e+02,8.728737200172336088e+02
4.030094250591457694e+01,3.015921122687165621e+02,8.735250554185624878e+02
4.140928199408213572e+01,3.031619310533611724e+02,8.710797271940193696e+02
5.453511846573944410e+01,2.835920341274288603e+02,8.566558805078788055e+02
5.920918203684902892e+01,2.977601497464179943e+02,8.781766347859469306e+02
6.503697164484135840e+01,3.033060818653509045e+02,8.855947318316282235e+02
6.000512394215752465e+01,3.098358633312211623e+02,8.579830723092976541e+02
5.852121902619212079e+01,3.071326077802225427e+02,8.725876240249483544e+02
4.647978422911200624e+01,3.054986574504193300e+02,8.617039351852511118e+02
3.782794819914018802e+01,3.001542381163229152e+02,8.497011859504272024e+02
4.985219025597602638e+01,2.950247140641287160e+02,8.675807506594304641e+02
6.591285385828813048e+01,3.005137583017364591e+02,8.786165725122142476e+02
3.720595286851401795e+01,2.969652767979337114e+02,8.699129789839566911e+02
5.416937499792767596e+01,2.977025664085860512e+02,8.663942959807726538e+02
5.133403174718131368e+01,2.875287515383086543e+02,8.536907505474159734e+02
5.681464319396475560e+01,3.087085760155185881e+02,8.619023287426851994e+02
2.812074324933193736e+01,3.057535341489260645e+02,8.590756327291204570e+02
nan,nan,nan
4.299796790398384161e+01,2.985231632297496844e+02,8.775859217023869405e+02
5.710100002599406110e+01,3.091883660294602691e+02,8.610996050316023229e+02
4.478169668052493080e+01,3.073795003851725482e+02,8.613204348804932806e+02
5.545428288202472800e+01,3.065317324039435789e+02,8.640972533501155795e+02
4.303686201074816609e+01,3.001257911252495205e+02,8.659782499528491826e+02
2.223555443671185827e+01,3.055600660609788406e+02,8.566280344186210414e+02
4.577576102259681790e+01,3.162840315354644076e+02,8.755805918129186693e+02
nan,nan,nan
4.844127943881468212e+01,3.075140972412055476e+02,8.568823027857598618e+02
6.328093979964116045e+01,3.210726488906878444e+02,8.795549619078915384e+02
5.451865449198110980e+01,3.010840687473955768e+02,8.919267431787535543e+02
5.033551512856255528e+01,2.962857673912042742e+02,8.743660157963425945e+02
4.335439234447763823e+01,3.153998385576016403e+02,8.787106602483994493e+02
5.076411866854113697e+01,2.913435556321203990e+02,8.694081369683867706e+02
4.661092771668973711e+01,3.050865385533889480e+02,8.680353003251633481e+02
nan,nan,nan
5.336440325750029956e+01,2.795364793637797334e+02,8.643770893154940040e+02
6.034564954840276840e+01,2.998973446369523117e+02,8.851439724776289495e+02
3.942360479836322895e+01,2.886780469110761373e+02,8.776748821356808321e+02
nan,nan,nan
4.088723337347552444e+01,3.114726097063500561e+02,8.730433420330224408e+02
3.862583559724687632e+01,3.043759661282658158e+02,8.695004067136109143e+02
4.534976443621633280e+01,3.025872541940008205e+02,8.696022813310186166e+02
5.043731385836307624e+01,3.082559434547330852e+02,8.717352998387250409e+02
4.996335881511222965e+01,3.051775528626736786e+02,8.594410666191145083e+02
4.424641270784485414e+01,2.958766277577946084e+02,8.712865829299141751e+02
3.475478873421415926e+01,2.839011334848988213e+02,8.642765505764294858e+02
6.666483270967891883e+01,3.064039767115759219e+02,8.677495130860538666e+02
2.771169458575409195e+01,2.996862406256141753e+02,8.912176548720000255e+02
nan,nan,nan
5.420998853077688295e+01,2.855209935634572957e+02,8.673249814270698153e+02
4.814119893247453774e+01,3.194969842545333449e+02,8.712094611438917582e+02
5.088894461223873833e+01,3.144370943088615604e+02,8.724034634841482330e+02
3.759575039799373997e+01,3.168380621646428494e+02,8.596285385983279639e+02
5.078497417348035725e+01,2.930119566475108286e+02,8.757462217651714127e+02
5.460725737636050781e+01,2.956102503891450510e+02,8.709150289187389262e+02
5.183979867826464272e+01,3.066984478166891677e+02,8.961840183730898843e+02
4.956411617291600891e+01,3.020044152718929240e+02,8.700231343198579452e+02
4.890602165760891751e+01,2.961776699607044065e+02,8.774751692040397302e+02
4.276555173805863319e+01,3.168734289241616580e+02,8.775091624825147392e+02
5.553017510457365091e+01,3.018116225907089643e+02,8.771471660639498396e+02
6.159042638176981654e+01,2.977020176286517881e+02,8.650634241221891898e+02
3.652937767344180031e+01,2.921107976899474465e+02,8.445634140692225174e+02
4.852540836961321702e+01,2.779201583470510286e+02,8.714876600757797860e+02
5.001840700943833440e+01,2.962110368936669147e+02,8.803183228834501506e+02
5.399011676958878070e+01,3.099569437374412360e+02,8.800711366982355912e+02
5.979094713492243329e+01,3.100982862618693048e+02,8.848244015065528174e+02
6.948511993121533692e+01,2.979636902282031770e+02,8.733926427872180511e+02
3.318184879042279078e+01,3.072105504432552152e+02,8.708056782258008752e+02
nan,nan,nan
4.188657809130366871e+01,3.015551423042155079e+02,8.612585963989686206e+02
5.568446672060078129e+01,2.752421209674749889e+02,8.832899542259985992e+02
4.459869101593158547e+01,2.886624920614949588e+02,8.616284514135683139e+02
nan,nan,nan
5.709132188848119682e+01,3.016591658481360128e+02,8.777160944573511188e+02
3.923356713087872549e+01,2.953888344558296808e+02,8.771872202193089834e+02
5.231699699988290320e+01,3.156073535824651231e+02,8.614215020915681862e+02
4.376181722227269688e+01,3.036488259846318556e+02,8.635128087664863870e+02
3.605086555736424003e+01,3.049436518515373677e+02,8.744025896263631239e+02
4.497640414673238496e+01,3.079592528070269850e+02,8.831781198755934383e+02
4.854143558436282291e+01,2.996103548760508488e+02,8.692730200781456915e+02
nan,nan,nan
4.539029121837856451e+01,3.028109376854570769e+02,8.795659447759147724e+02
4.882571915702094145e+01,3.101589854118425365e+02,8.620032824187117058e+02
5.360492134439121514e+01,3.044958730866906080e+02,8.665378421282159707e+02
3.224057101271040437e+01,2.974022252126100625e+02,8.905726388418656825e+02
5.089212523898439855e+01,3.119183242792042279e+02,8.712180260879188154e+02
5.087458201857621987e+01,2.954539490218223818e+02,8.704756957852503092e+02
5.238711102122417884e+01,2.812049059478995332e+02,8.628057134210657750e+02
nan,nan,nan
nan,nan,nan
4.750180704291302902e+01,2.930541932596643733e+02,8.969032618485695139e+02
6.419351536599326380e+01,2.827250546480301523e+02,8.523446397609362748e+02
6.331737055327091213e+01,2.851593973120079113e+02,8.637401869498586393e+02
5.879144701868232659e+01,2.954258136910556800e+02,8.617292778767115351e+02
4.387559220029155682e+01,3.178181916362114521e+02,8.530032123864770028e+02
4.637911044490726908e+01,2.927015621785636199e+02,8.661997457267301570e+02
6.580452920659138272e+01,3.073565998757690068e+02,8.701353323870874874e+02
5.191516785005214984e+01,3.046574486038431928e+02,8.721839774821087303e+02
4.898028603247983170e+01,2.947266838427960920e+02,8.564102432805650551e+02
2.836312918997924726e+01,3.005850529592399312e+02,8.772212443557774577e+02
3.559318966894130654e+01,3.098499526101610400e+02,8.763593609479401039e+02
6.232068814617233699e+01,2.912908794238682049e+02,8.779983494269899893e+02
5.226777526610680269e+01,2.970542249466419662e+02,8.659796208251235612e+02
5.983816051201689845e+01,2.919080879788056109e+02,8.778997598611458670e+02
4.042724498341846129e+01,3.011611561694495549e+02,8.909476198765470372e+02
3.718776878905914884e+01,2.938323599028431090e+02,8.666430172959358060e+02
5.135393027035823366e+01,3.025715140156187886e+02,8.693054424673254061e+02
6.471323486333406549e+01,2.908433333361602422e+02,8.628738394977074222e+02
4.980852201359437714e+01,2.800011116596752458e+02,8.876303153359569933e+02
4.391056087272562536e+01,2.883112483802506745e+02,8.795360179116272548e+02
2.966716563283191022e+01,2.957816350159806120e+02,8.726493452805680135e+02
4.055293409306512586e+01,2.825847710246128486e+02,8.871724794726217169e+02
4.293244184409162756e+01,2.891978201131413471e+02,8.678292582821197811e+02
4.308169507669044407e+01,2.880884828695793090e+02,8.884294262257610626e+02
6.128840378968195779e+01,3.123323809926229160e+02,8.722547466202223632e+02
5.490292149302536018e+01,2.973018693159227723e+02,8.698934601088698173e+02
4.811687231887765392e+01,3.037564313828014519e+02,8.605588454034698316e+02
3.545949994282531748e+01,3.228520500684560943e+02,8.815182146430541934e+02
5.038127515703813231e+01,3.079174846083876105e+02,8.811291893530758443e+02
2.962182497218534394e+01,2.991460820354589032e+02,8.665954276419973894e+02
4.147379257553609477e+01,2.985482663367225200e+02,8.768243620856017060e+02
5.651252922503029197e+01,2.941264919854704090e+02,8.677442293433203986e+02
6.428098115821136105e+01,3.238987973587563829e+02,8.884251133928037234e+02
5.775980383722487232e+01,2.931109326087714066e+02,8.745256894811416259e+02
5.922836886548167001e+01,2.825745144153949013e+02,8.494481981597861022e+02
4.551902287858928275e+01,2.932385620851551948e+02,8.716183714851129025e+02
6.205709557161767265e+01,3.111190733671627413e+02,8.666620326425916119e+02
4.250615398561443214e+01,3.158561408371062953e+02,8.623238141844863094e+02
3.293351532431466211e+01,2.912212962187674634e+02,8.664061942849041316e+02
4.448822977554618774e+01,2.799919107637208526e+02,8.729806371958452473e+02
4.456218833473248253e+01,3.062915573812725256e+02,8.836130819725980245e+02
5.265590379203624849e+01,3.025650882537054258e+02,8.592115875608035367e+02
nan,nan,nan
5.148002800653321742e+01,2.947641789956043112e+02,8.705830568594885790e+02
5.122788647448173549e+01,2.933277721609887863e+02,8.796025544432404786e+02
5.334841086130484200e+01,2.827400329343039402e+02,8.732489009668793187e+02
5.899130517714041844e+01,2.855445903461575199e+02,8.713488054089166326e+02
5.245259578106426801e+01,3.085066667253043420e+02,8.434793703814102628e+02
nan,nan,nan
5.438769278884583258e+01,2.986317034575675962e+02,8.678875648897195560e+02
6.569364232285329308e+01,3.241798438940414258e+02,8.621423434124288860e+02
nan,nan,nan
6.223144741876889441e+01,3.160641399339855298e+02,8.711595015234130415e+02
4.746488689861765664e+01,2.934956088587317709e+02,8.628447117114889124e+02
4.366851652272918471e+01,2.976317682619926472e+02,8.602534049453748821e+02
4.625350097187811826e+01,2.910923450497807039e+02,8.581397889905904321e+02
4.943511826110539431e+01,2.963613226575610611e+02,8.829182744736697259e+02
5.597554908657659212e+01,2.966292211315609961e+02,8.852781533924984387e+02
5.149757110811623306e+01,3.083777634830456691e+02,8.611145150023335191e+02
nan,nan,nan
3.582985192101334349e+01,3.069516335274158791e+02,8.544172333780403505e+02
nan,nan,nan
6.090155689228952696e+01,2.938821325010949295e+02,8.922761954464654082e+02
6.435987991805373554e+01,2.989889275314163228e+02,8.732676993757496575e+02
nan,nan,nan
nan,nan,nan
5.309137125333756302e+01,2.997258645201840750e+02,8.779626609260167243e+02
5.208713801287373713e+01,3.053710433795336030e+02,8.746618479045527010e+02
nan,nan,nan
5.497046748017330486e+01,3.041560844584819847e+02,8.661047695078868855e+02
nan,nan,nan
7.626261153588737329e+01,3.190916576730944598e+02,8.749909564049307846e+02
4.963221645038284890e+01,3.382824151208448029e+02,8.719372699733402214e+02
4.693206471620163711e+01,2.907192467182374003e+02,8.752274939163128238e+02
4.221198016929047725e+01,2.984733741037511550e+02,8.753717124724339556e+02
7.353685259000204155e+01,2.924107225662913834e+02,8.583169150978565085e+02
6.369188156513099841e+01,2.905207105485807801e+02,8.495466246096915484e+02
5.365576267832241797e+01,2.973111891259651429e+02,8.513794087604387641e+02
nan,nan,nan
5.401047670062103379e+01,2.851401891859895272e+02,8.733243224404550347e+02
5.573240153953916831e+01,3.054277002606388578e+02,8.706474964343358351e+02
6.530176226973958364e+01,3.074622879669586268e+02,8.792174846265270389e+02
5.357387957679124924e+01,2.964971953631075507e+02,8.697862198221221206e+02
3.712687919225056987e+01,3.108013763872024811e+02,8.754861819421828386e+02
5.039453084439018227e+01,3.123608749749932940e+02,8.681318779759541258e+02
nan,nan,nan
4.310870231813709808e+01,3.015096405445667642e+02,8.815361548549213921e+02
4.965937153717317898e+01,3.040275404902954506e+02,8.697007465159979347e+02
4.660091595491495298e+01,2.943609724766715772e+02,8.714027644692511103e+02
5.413453891911238713e+01,2.949734710430111022e+02,8.662114166716270347e+02
3.347939626388639311e+01,3.166186174085913194e+02,8.704009908034987575e+02
3.997310829084020156e+01,2.948508469931335867e+02,8.875444260217934698e+02
4.937340806742421506e+01,2.919474913444046251e+02,8.694105027112789230e+02
nan,nan,nan
3.076733473859430035e+01,3.120827339642610809e+02,8.683550986085375598e+02
nan,nan,nan
5.009331516317540434e+01,3.061663238771196802e+02,8.670233811188624031e+02
6.003495226665607731e+01,3.161570731546808588e+02,8.764281346979556702e+02
nan,nan,nan
5.665364457259452990e+01,3.102801389453026104e+02,8.520945030171855024e+02
4.714208490941670249e+01,3.026470896121664396e+02,8.951552980345481956e+02
4.850540765283258082e+01,2.847940321134228157e+02,8.740535849613351047e+02
5.495419114161614971e+01,3.087451997994180033e+02,8.694082891776135966e+02
4.759046725939558087e+01,2.868571870656986675e+02,8.490268958692527121e+02
2.867340810051855371e+01,3.019859855862093809e+02,8.806524124484931235e+02
5.920314694312934023e+01,3.010456498832908778e+02,8.653739863157733225e+02
4.524201552083176381e+01,3.051189780819934754e+02,8.624330481049387345e+02
4.439609866035863206e+01,3.177339598783335646e+02,8.698666788574063276e+02
4.965609996653218161e+01,3.061498010206635740e+02,8.716760842874648461e+02
4.377987804277017148e+01,3.026605582613195224e+02,8.601452872401056311e+02
3.795530219725672794e+01,2.899035190259870092e+02,8.827591542261685618e+02
5.310629541870806491e+01,3.057640879381139598e+02,8.688816298295027991e+02
4.245564470268963220e+01,2.939626669799338856e+02,8.610144013120620912e+02
5.565060067004682764e+01,2.885861180543381010e+02,8.695714470570441108e+02
6.163645709212869406e+01,2.853601106434015833e+02,8.714461985084903972e+02
nan,nan,nan
3.636186430919926238e+01,2.841867314561777675e+02,8.739293027387618622e+02
4.150016074899196639e+01,3.001385608699078489e+02,8.663978865257819280e+02
3.531402756068249005e+01,3.010211673408515480e+02,8.761576456410053879e+02
6.063459969736796040e+01,3.021154681991614552e+02,8.706078640649219551e+02
4.936217004956345278e+01,2.889869193622480452e+02,8.845052881725614498e+02
3.971489570375322842e+01,2.879973261788191508e+02,8.782667902544274057e+02
5.020408938524138875e+01,3.259440536995257958e+02,8.687245754193594394e+02
5.867636974988360521e+01,2.857300592269933759e+02,8.754173491251958694e+02
3.687645674720403832e+01,3.154118352759479080e+02,8.744182372853983907e+02
nan,nan,nan
nan,nan,nan
5.343275684481971410e+01,2.974626242943324996e+02,8.632919488546167486e+02
nan,nan,nan
5.775187398198369237e+01,2.987501641032663429e+02,8.701672288153370118e+02
6.565451267768062849e+01,3.174443163920435040e+02,8.641885245428309190e+02
4.764543176575511296e+01,2.964078977026112511e+02,8.772149551655598998e+02
4.378661014119852268e+01,3.103387625591375922e+02,8.702213823258291541e+02
4.945389846980473436e+01,3.067855033039656405e+02,8.787500343608462572e+02
3.450745184541030852e+01,2.878856360239682886e+02,8.634699627922855143e+02
4.229547521313963898e+01,3.257723897708322625e+02,8.693424060794080788e+02
6.251400730456708743e+01,3.120753116634377875e+02,8.553517409258539601e+02
6.485501898225265904e+01,2.900872958295173589e+02,8.721506383484303342e+02
4.763914651310913229e+01,3.014378784521563261e+02,8.535968888464008160e+02
2.635913190953004914e+01,3.107627449172454135e+02,8.649312792105406515e+02
5.138231612837144979e+01,2.842336052059483222e+02,8.874581514647351241e+02
5.057670707027131130e+01,2.871407253443134664e+02,8.713886053061730763e+02
4.147785771446874037e+01,3.178821774350979013e+02,8.674182304685513145e+02
4.238139056546614114e+01,3.050048561662472935e+02,8.637445558809000659e+02
4.628050723098829167e+01,3.182314379201856127e+02,8.720608829748774724e+02
5.073020950992909661e+01,2.964333873959989205e+02,8.688841737914373198e+02
6.148289258321739226e+01,2.927951293672410316e+02,8.648328718808661506e+02
5.407805407816402976e+01,2.996619670848775172e+02,8.743513416196414028e+02
5.108776506644223048e+01,2.944489604738309936e+02,8.666632624443096802e+02
7.060001677073185533e+01,2.871381741898598534e+02,8.646947910208772328e+02
3.921085091894575214e+01,3.150118079404361424e+02,8.640025180227879673e+02
6.225572629224546972e+01,3.095111412199157712e+02,8.502459374707613051e+02
7.099418792393483102e+01,2.992068679578430874e+02,8.702684798562371498e+02
5.318619531524999644e+01,2.884847834029956175e+02,8.791489831726693183e+02
4.673598213591902351e+01,3.013060540862941252e+02,8.723289093654699400e+02
5.282282952981555013e+01,3.039550981500767080e+02,8.722883466927248719e+02
5.351291431553297429e+01,2.912996781303315288e+02,8.705690649049429339e+02
5.180084432982472009e+01,2.843092914851109185e+02,8.728967995442826577e+02
5.378930765938182645e+01,2.962434843217546359e+02,8.738721408163439719e+02
3.850341834416563813e+01,3.104322755542257823e+02,8.894736175592030349e+02
4.316728154681832308e+01,3.051498522070928061e+02,8.925336685833443653e+02
6.992578720129135661e+01,3.039233579181089340e+02,8.642934414472975959e+02
4.186524023872389932e+01,3.035098889361040619e+02,8.755922847582104396e+02
5.632550236309423042e+01,2.955812195868385857e+02,8.836544182958438114e+02
4.521707530864578217e+01,3.023636452923896627e+02,8.608738908519468396e+02
nan,nan,nan
3.904633283578100134e+01,2.916478890598044131e+02,8.494982763537226447e+02
5.575750152177158014e+01,3.037436115257885945e+02,8.776925567922597793e+02
4.875403550775236994e+01,2.872104329269309915e+02,8.582087190919468185e+02
3.570343638147530640e+01,2.895508053159018687e+02,8.781180508055616656e+02
5.609509413363673502e+01,3.140348457788666678e+02,8.792433166472480934e+02
7.258963840190438077e+01,2.957013580087629521e+02,8.714435356556200531e+02
4.599857398241588413e+01,3.032015259065814234e+02,8.743377643373470391e+02
3.168493099199287855e+01,2.957568372600835005e+02,8.472344547261607204e+02
6.026739306906429761e+01,3.092474565159595841e+02,8.798972187647241299e+02
5.389595069916524750e+01,2.969354267180231659e+02,8.562581090029570987e+02
5.414708550815781507e+01,2.920740705546310210e+02,8.616629638781141693e+02
nan,nan,nan
3.713356019108151429e+01,2.963505790009539282e+02,8.789085986754676014e+02
5.206692047877850626e+01,3.056173414763535447e+02,8.705136547496459798e+02
7.089664068562244381e+01,3.130110849811720186e+02,8.640277677187937115e+02
5.009996133303148014e+01,3.185043191751303198e+02,8.574595495965413647e+02
5.245235754615185186e+01,3.030212986618020068e+02,8.610445571473666178e+02
3.906003253257325980e+01,2.954595101982495180e+02,8.778837970953394461e+02
4.366387412629094911e+01,3.082765703073151258e+02,8.685256099948336441e+02
nan,nan,nan
nan,nan,nan
5.853882501445620790e+01,2.895670987034634436e+02,8.621000555261496174e+02
4.502113589055349507e+01,2.941874268159075427e+02,8.536517759600380941e+02
5.800164188055553893e+01,3.090940361480068646e+02,8.821107210567743095e+02
4.459953246335017241e+01,2.933995747496037438e+02,8.687244483961675314e+02
4.217903923899698526e+01,3.018437016046136137e+02,8.614482711445093628e+02
nan,nan,nan
4.630471464792081804e+01,2.949280992117070355e+02,8.587126981786304896e+02
4.688895680978967562e+01,2.970313233834254447e+02,8.596664026659130968e+02
3.369340361877895162e+01,2.991390972644029489e+02,8.654856953880431547e+02
nan,nan,nan
4.718575081700264917e+01,3.013005434369505338e+02,8.656403549003064199e+02
4.940543532566457685e+01,2.862952108596717835e+02,8.822169237019298862e+02
6.203737909063953992e+01,3.106882659376115612e+02,8.685638237046665608e+02
4.065042570597356075e+01,2.948394378673888241e+02,8.745349425870757614e+02
nan,nan,nan
5.793548260093104574e+01,3.124052658447234876e+02,8.744701222979884960e+02
3.712788108002265375e+01,3.173804503276801370e+02,8.602707928472389085e+02
4.838992538799612930e+01,2.876006828251726120e+02,8.689290536428679843e+02
5.159608621132791484e+01,2.984791841605240279e+02,8.560257247285062476e+02
5.803299556515978708e+01,3.006126691594299700e+02,8.650052895780199833e+02
7.085942565117093750e+01,3.053265749259332438e+02,8.764499455828359942e+02
5.758519835487646787e+01,2.916009496809185180e+02,8.722784622548622337e+02
4.914132139960389623e+01,2.888669282801202485e+02,8.704502004487018212e+02
4.632916187858055679e+01,3.072140509427243842e+02,8.759099447604161242e+02
5.010963598476804037e+01,3.015642456066855743e+02,8.629971016893803153e+02
4.417724078232335927e+01,2.826626092512416335e+02,8.647753384265629393e+02
4.550693036139820435e+01,2.985598667298828559e+02,8.655252967101207560e+02
6.869933741200739519e+01,2.963947693180140277e+02,8.690457242819092016e+02
5.175580037587397442e+01,3.051883715558868175e+02,8.731048939961455062e+02
5.609880327231095265e+01,3.072714495654723805e+02,8.599793274623269781e+02
4.663648638159119741e+01,2.953624235673703424e+02,8.684674144419167305e+02
5.364095040697906569e+01,2.897484252062484984e+02,8.489943255184590498e+02
5.803015751775269848e+01,3.105628858598623765e+02,8.566369476062569674e+02
4.343843280691821462e+01,2.876050293938965865e+02,8.752721590646667664e+02
5.385259612715262989e+01,3.106131516218223965e+02,8.703831412851368441e+02
5.444516279911668022e+01,2.915092219230400019e+02,8.782391023454748620e+02
nan,nan,nan
4.481780597459422921e+01,3.054560709241357586e+02,8.594907998520542378e+02
3.837337276430157829e+01,3.008442245000941853e+02,8.894946905091592271e+02
3.748576871354831752e+01,3.105462387821129937e+02,8.604215013207408447e+02
4.503962712248842593e+01,2.982076609226293158e+02,8.745824102661857751e+02
6.124155811222514956e+01,3.119873247249017254e+02,8.785061137028361600e+02
5.514457308105087918e+01,3.107607578627613520e+02,8.843067050758450023e+02
6.068267304306908017e+01,2.930681776012850719e+02,8.806009944095940227e+02
4.295200265577655330e+01,3.098721379881920370e+02,8.920753181049011573e+02
5.472366826964127995e+01,3.020984701117301370e+02,8.530845522590692553e+02
5.132041402654978413e+01,2.916694853693618370e+02,8.550656319629314339e+02
6.672517220205958210e+01,3.089600749772009749e+02,8.723548004127707145e+02
3.782845884013454452e+01,3.162799593492533745e+02,8.506293913442015082e+02
2.275217749887363894e+01,3.094141231896410318e+02,8.745004431447953266e+02
3.026517521139592404e+01,2.953381444464214383e+02,8.851289202479536016e+02
nan,nan,nan
5.048292106551942737e+01,3.028622294866255515e+02,8.636273997093002208e+02
4.717119385373604956e+01,2.945073322677372403e+02,8.708080620946454928e+02
5.532428638632473650e+01,2.902864165393559688e+02,8.661625425103910629e+02
5.193055440403649925e+01,3.184611334383308190e+02,8.766237084814921445e+02
nan,nan,nan
4.933559048659427759e+01,2.851916871564733356e+02,8.786758448354870552e+02
5.052723625233592486e+01,2.879945930565814933e+02,8.717202302866606942e+02
6.043152280052940739e+01,3.124738846274825619e+02,8.852268412405240952e+02
5.578586171320012710e+01,2.995182054438064938e+02,8.633693472236421940e+02
4.385231485436405308e+01,2.961563360970648091e+02,8.625718458776103716e+02
5.831981234391242452e+01,3.038436882971466844e+02,8.649194267668283373e+02
4.419045233250154325e+01,2.954276718403659174e+02,8.788596262470158536e+02
5.105512015959524064e+01,2.923333602816963435e+02,8.698371085704206962e+02
5.520980604886900522e+01,2.982853441624237689e+02,8.721495156107041566e+02
2.868522792342975691e+01,3.093345622085443551e+02,8.672979956909701968e+02
6.143966498792764952e+01,3.058374293219173978e+02,8.715422853263809202e+02
4.125836160918005646e+01,2.887514490543092052e+02,8.855097954458120739e+02
5.103745656361169836e+01,2.855861884919719387e+02,8.763298076134428811e+02
4.085086367297883925e+01,2.988579480744003831e+02,8.803836157107098188e+02
5.037285305875935393e+01,2.974112953987169590e+02,8.753295766508309725e+02
5.351584010025987226e+01,2.989555025212150099e+02,8.703365150652389275e+02
5.969550829688154892e+01,3.063735100153304529e+02,8.594869377157531289e+02
4.056711908929504062e+01,2.984820627656272904e+02,8.851004123502822267e+02
5.106406076806867844e+01,3.056490896032553906e+02,8.851195857051578741e+02
6.010408149112987530e+01,2.930720566597343577e+02,8.763481397035105829e+02
4.214008743376658117e+01,3.078144446726112164e+02,8.778454911449048268e+02
5.884968032649911152e+01,2.924078286034419989e+02,8.675816988338082183e+02
6.526144470616634408e+01,3.108761832102970288e+02,8.893572443128298346e+02
4.880766293793531929e+01,2.878860032628216459e+02,8.570348942600713826e+02
3.013503928915166696e+01,2.970060640471220381e+02,8.585773416700303642e+02
5.048582075790940138e+01,2.993944169083984548e+02,8.923143029349733979e+02
5.704658301548744248e+01,2.984698884639288963e+02,8.620262692528277739e+02
5.038406972457562460e+01,3.080372009819222967e+02,8.605466440545933438e+02
5.046337713274293435e+01,2.955983948772756662e+02,8.628667843802369362e+02
3.329611308223260835e+01,3.063517143756683936e+02,8.797797343719983019e+02
3.416705233054219093e+01,2.945926257972668054e+02,8.598667698452953800e+02
nan,nan,nan
4.273604453470769471e+01,3.010053345583494320e+02,8.704788579657877108e+02
4.405377747520698506e+01,2.919668078421911446e+02,8.658581915598120986e+02
4.650659478549442127e+01,3.011924121997738553e+02,8.552771975706713192e+02
5.744408239182702403e+01,2.826571178144249075e+02,8.676945258104663026e+02
5.126350432467589968e+01,2.972538752071714612e+02,8.762556623798026294e+02
5.367223362654868168e+01,3.056465333842468226e+02,8.684143294028771152e+02
4.090478829298803731e+01,2.965837807139243409e+02,8.763277694262457089e+02
6.605662463407347218e+01,2.981681709967873530e+02,8.767294717020666894e+02
4.729121011385222317e+01,3.045243671855373009e+02,8.759065143782125915e+02
4.791365629984441910e+01,2.945512456361631166e+02,8.437967957277451205e+02
4.923172144048547949e+01,2.916976298983388460e+02,8.588707043177927289e+02
5.969634488900675251e+01,3.017304659297665239e+02,8.686104049731894747e+02
5.829327018876796984e+01,2.861206180456817947e+02,8.794553336405183472e+02
4.065239950821953130e+01,2.982519905988130517e+02,8.593149633468224238e+02
4.412558571403656060e+01,2.886216130033332661e+02,8.735302852863216003e+02
7.311312817026993116e+01,3.115247544335383054e+02,8.565920240449015637e+02
5.082166683691210096e+01,3.079983517287329278e+02,8.767197715374229574e+02
5.122077437897134899e+01,2.912124483852293793e+02,8.745005759222514143e+02
4.025762378616311565e+01,2.978452075652453459e+02,8.731342368046632600e+02
4.593844085908909847e+01,3.138560874618810885e+02,8.684016849781888823e+02
3.728682905097277001e+01,2.906310507428577807e+02,8.662060688692839676e+02
nan,nan,nan
5.040410898630157988e+01,3.062219740558372223e+02,8.697618917851002607e+02
5.049813322264915882e+01,3.117282210022692652e+02,8.577596281824327207e+02
2.057830150076202358e+01,3.102031003467317873e+02,8.774036882640765498e+02
4.220195411052571188e+01,2.988739851824445850e+02,8.732070441156282641e+02
6.720830052813724365e+01,3.033809902342129590e+02,8.550700133732675567e+02
nan,nan,nan
5.333045059575249525e+01,2.945946293632420065e+02,8.734629395063984703e+02
4.645689556378804497e+01,2.973624168132431578e+02,8.734061970558271923e+02
nan,nan,nan
5.289334214967006176e+01,2.848053614858999936e+02,8.713460334791050172e+02
4.144203382947384284e+01,2.923425957768426429e+02,8.765684019253523047e+02
4.654332863936157594e+01,3.018788104932482952e+02,8.815216989821481093e+02
5.916057261809298495e+01,3.056842032453046158e+02,8.747053548410714257e+02
5.079612251727405692e+01,3.012539773507897962e+02,8.612130931381124128e+02
4.309400962234322918e+01,2.880773076490080484e+02,8.633061808463738771e+02
5.189540574117857119e+01,3.009208297848692268e+02,8.726425204165487912e+02
6.546487188669161128e+01,2.973341546432155269e+02,8.867984817571967824e+02
4.688354248669246971e+01,3.097612074833275528e+02,8.583247815465067561e+02
4.912204193711636435e+01,3.102959528475216189e+02,8.633713215170046169e+02
4.867969201378037525e+01,2.862249773351317685e+02,8.835839686997597937e+02
5.928230176286827202e+01,2.843918165123446897e+02,8.630761427108075168e+02
3.902645184020488500e+01,3.040648652857675529e+02,8.691235984762586213e+02
3.869327220513176258e+01,2.880824469250475204e+02,8.840033893597337737e+02
6.442462783278746485e+01,2.889279387418403644e+02,8.637189065504112477e+02
5.295534219025236666e+01,3.036351760106909410e+02,8.774900917580657733e+02
5.918966437260453972e+01,2.778847788703195647e+02,8.882217772290357516e+02
4.510555784442016147e+01,2.909948875834311934e+02,8.600328891891758758e+02
5.287432601520306719e+01,2.906472948057283361e+02,8.721785940221951705e+02
4.820904908118799881e+01,2.898911699549863670e+02,8.688271978804673381e+02
4.885734281004983615e+01,2.999287813530409039e+02,8.661598235903205705e+02
7.509242740730098831e+01,3.075835729573313415e+02,8.727902664577163705e+02
nan,nan,nan
4.627646297452211854e+01,3.028736430354013578e+02,8.599585724988871789e+02
6.146655290323791121e+01,3.023245878984106980e+02,8.637340820513678636e+02
4.610193752224942187e+01,3.086173134019531972e+02,8.741621038881493178e+02
4.673136114280723064e+01,2.976258623984805922e+02,8.671108139842218634e+02
4.924285627133477306e+01,2.965937219833699032e+02,8.708433454983174897e+02
5.313081953990921136e+01,2.963866056153955810e+02,8.756610740110992310e+02
4.361924045976380881e+01,2.968313589822986387e+02,8.541412760301326443e+02
4.311986326666423253e+01,2.912365883171501650e+02,8.800332275596465479e+02
6.142101918771300717e+01,2.873241405027654309e+02,8.576767205791501283e+02
4.154293190946916781e+01,2.971195573744723220e+02,8.586089697797383451e+02
5.272997590583017313e+01,3.006773604023495068e+02,8.748763180299147280e+02
3.876189174992858000e+01,3.064076635049437414e+02,8.772254646794743849e+02
5.911434550875041793e+01,2.949100397090745673e+02,8.646297577097996054e+02
nan,nan,nan
3.851347689973954402e+01,2.889763787667963584e+02,8.729452966026022978e+02
5.676385334823957152e+01,3.065639997347246322e+02,8.661165749929914455e+02
5.115508162579689611e+01,2.918104213562418749e+02,8.634540131690563385e+02
4.605253451415011767e+01,2.984579258460688038e+02,8.495479552619044625e+02
nan,nan,nan
4.795257242478029980e+01,3.080299070929291361e+02,8.627555289119045483e+02
5.562533155059448120e+01,2.952748182099952032e+02,8.688826514880367995e+02
3.121228803324714107e+01,2.990986937044236242e+02,8.632208773800521158e+02
5.627593669515330532e+01,2.990936340752083993e+02,8.697358202323397336e+02
5.177259507553988271e+01,2.956802028214072493e+02,8.755129566746497858e+02
3.794886254443529339e+01,3.171163161029082289e+02,8.788001330066550736e+02
5.333192548272032241e+01,2.972603692051554276e+02,8.748845370817326739e+02
5.207784239456160691e+01,2.959317077287727216e+02,8.783272381879584145e+02
5.487228611407955725e+01,3.005084972482427474e+02,8.663124929407234731e+02
4.098622821289516338e+01,3.014256756401881603e+02,8.690563007804946665e+02
4.728782709170295107e+01,2.863185836211604283e+02,8.575021665421578518e+02
2.907389917221861353e+01,3.151969448956083966e+02,8.761270308984659323e+02
5.206433592284709988e+01,2.873724249895888647e+02,8.788517667352022045e+02
3.975395190109361465e+01,3.018686116818639107e+02,8.779049925029030419e+02
4.387930326324624275e+01,2.915261792888720720e+02,8.768749197943502622e+02
4.596922707136755548e+01,2.933088500448507148e+02,8.515654796619456874e+02
5.882488723938516273e+01,2.987129676796402009e+02,8.659066630785080179e+02
5.109627539234116966e+01,3.068822252701554589e+02,8.800707956424228087e+02
nan,nan,nan
nan,nan,nan
4.626654359645448977e+01,2.980015122536993886e+02,8.696528473083006929e+02
4.638293131885922804e+01,3.017754099549014768e+02,8.919326403309660236e+02
7.145607087156531634e+01,2.843756134427133020e+02,8.822850852787386202e+02
6.340988611869065039e+01,2.991881577710436204e+02,8.808969936516867847e+02
